# 3D point list with one line of data per point:
#   POINT3D_ID, X, Y, Z, R, G, B, ERROR, TRACK[] as (IMAGE_ID, POINT2D_IDX)
# Number of points: 357, mean track length: 6.2298273155416011
6646 -0.29826165301710383 -2.8569989904756623 21.912733804889392 196 96 82 0.067415918960081242 30 1181 31 1139 32 1180
5703 -0.099918584930467597 1.4250223400295792 15.511273305984037 98 61 55 0.25188921112964247 24 534 25 496 26 551 27 542
7163 -0.94438162361676414 -3.8213637582094906 22.357258054319878 163 129 116 1.123093873590328 30 688 31 1128 32 1163 33 1149 34 1091 36 1126 38 649 39 1185 35 638 41 1185 42 1191
5704 -0.52198403995935894 1.5194732243171092 15.919910756274767 32 22 20 1.4085777851059922 24 551 26 563 27 1050 28 1348 30 1584 29 1578
5705 0.25208832993798025 1.5079988912053295 15.679106096997224 37 26 25 0.39790995028002379 24 1060 25 1051 26 567 27 553 28 516
5706 3.4730237721999302 3.435275315603223 31.302710477213409 88 90 69 1.2847832433210331 20 522 25 1067 26 597 32 534 42 544
5711 0.35184153124546313 2.9958411601590931 17.452118605814228 33 38 31 1.178946539517755 29 608 30 574 26 621 27 602
5723 -0.13138738385437157 -0.86911397801382362 17.20523929046303 202 55 71 0.20363397198406513 23 716 26 779 22 683 21 708 20 74 19 85 18 99 27 742 28 716 29 742
5728 0.04838270929684161 -0.12247047535680512 16.213773143169021 111 34 37 0.27221637504010232 29 800 30 783 26 842 27 148 28 163 31 156 32 771 33 780 35 721 36 740 34 741
7069 0.52347686478526612 0.28798022541878388 15.204132154358572 100 42 41 0.46425231989905819 33 1257 35 771 34 1210
5730 1.4028051836488489 0.22585818094539106 16.2771570079951 197 94 87 0.39934931964990916 24 834 25 814 26 876 27 843
6550 1.1319910160328117 -0.028089927667972758 16.165202703960468 250 244 248 0.80706697759586055 25 1234 30 1244 29 1227 24 1260 26 1283 31 1193 35 1174 36 1211 37 1532 38 1580 39 1606 40 1524 42 1592 43 1569 32 1246 33 1225 34 1181
5735 2.1392114699572273 0.53843015987963383 16.076943148075379 179 65 51 0.35285089093349364 24 889 25 884 26 928 28 299
7067 -0.82294166241717803 -0.0026041034197387134 15.55413461340299 186 73 54 0.40650866904783706 33 1223 35 1172 34 1180
5736 -0.32088456937259902 0.75696328405104851 15.386618945100007 102 40 33 0.29860313750833795 24 933 25 925 26 959
5738 0.70092552006249209 0.85817999174302728 15.252588205962526 135 48 38 0.43641297391834616 24 406 25 951 26 981
5743 0.80513012664483796 1.2723147170204707 15.357801353561788 41 29 29 0.1604707251281258 29 518 26 1051 27 1024 28 993
7149 2.0970373498136405 4.395019340331225 30.282441834744976 35 40 34 2.4280569791052358 33 2258 35 2157 36 2200 34 2187
5746 2.8041408858322803 3.1529645408433349 31.204350053720269 86 63 55 0.82539146678496755 29 1057 26 1086 32 1061 31 526
5748 -6.0128564729284424 3.537284014446604 15.331050653062928 23 23 22 0.21926622280609864 23 630 26 1135 27 644
7147 -17.0486861295865 0.46808631708203252 44.265061763367989 41 47 33 0.95903426975608019 32 2214 33 2179 35 2093 36 2084 37 2063 34 2109
5752 -7.2290413290037723 -6.2191213067675575 26.618699366911848 174 121 129 2.0439186487919243 25 656 37 611 26 1182
5757 -1.2720432075132875 -0.70548942942252379 17.866293129335151 210 129 99 0.73206087460488822 29 757 30 1214 26 1247 27 759 31 714 32 81
5765 1.6261768329884259 0.82510160041744762 16.201658253419108 232 233 237 0.352379267749029 24 1325 25 1304 26 1364
6423 -0.50548930833267502 0.58555195115117742 15.891338888777828 130 45 38 0.16486296972326106 29 343 30 321 31 295
5766 0.53420597188167052 0.93290594316214159 14.96071308703023 202 137 133 0.208839971254243 25 1316 29 1319 30 1318 26 1373 27 1295 28 1289 31 1288 32 1351
5769 1.7518540364611759 1.1451986096050497 15.606120868604686 174 54 40 0.92202993495802699 24 1356 25 1555 26 1394 27 1315 28 971 29 1009 30 469
6936 0.65780196829608095 1.4937672331053897 14.981419965909506 150 76 60 0.50222701183812457 25 1936 26 1965 29 1895 30 1889 27 1896 28 1884 31 1843 32 1920 33 1921 35 1842 36 1892 37 1907 34 1864
5771 0.035180820122709386 1.363539999782829 15.339467838110338 27 23 21 0.56226262226871171 25 1345 29 1361 26 1410 30 1357 27 1336 28 1337 31 1332 32 1390
6930 1.2424914246692411 0.780233088384923 15.298148515689064 223 177 165 0.30125981487973957 27 931 29 938 30 937 28 907 31 912 32 905 33 917 35 871 36 881 37 1299 38 1332 39 1356 40 861 41 913 42 936 43 1312 34 895
5773 0.89284060233994611 1.6530817738259047 15.491596746194713 74 39 35 0.56298700550121505 25 1060 30 1378 26 1433 24 571 27 1354 31 1347 32 1408
5779 -5.5741229433464259 3.6724986570993101 14.555515465948529 91 55 57 0.75615954105569061 29 1135 26 1486 30 1431 27 1403 28 1429
6503 -0.23396165571670996 -3.8768492075359982 23.256352243261247 115 90 80 0.25596833796799989 28 1628 29 1643 30 1638 31 1620
7010 -1.5038964719257915 -3.8266104464312258 21.957252266160616 194 137 117 1.7379865173168083 35 637 36 639 37 615 34 647 38 9 39 14
5789 -0.10517238561083869 1.1903641251372303 15.584819934027172 37 25 27 0.99671897611600679 29 1339 30 1342 26 1618 31 1314 34 965
5790 -0.37090057363071449 1.2715693506912331 15.565219865552269 63 38 34 0.50665604323526903 24 1571 25 1561 26 1622 27 1547
5792 0.38664351465061475 1.5628108670380463 15.47884739476649 116 79 73 0.52464417798941421 25 1357 29 1586 26 1643 30 1589 27 1347 27 1565 28 1567 31 1556 32 1627
6455 -0.73823105806346967 0.98401749121684778 15.343098750727412 149 67 59 0.43359473980367397 29 972 30 977 31 956 32 951 33 952
5798 -0.4058623895553421 -1.9411097725001538 21.510749555074842 174 71 59 0.47901645930089187 23 1434 24 1498 30 1684 26 1760 27 1698 28 1681
6407 -2.3436996309811207 -2.6636343085220364 22.044028599122587 192 111 92 0.61765737656038766 35 32 31 53 36 31 37 40 38 671 32 675 33 39 34 27
5814 -5.7463139614465071 -3.6154683949785946 27.047037349979579 32 32 30 0.75088757990715982 20 1911 26 2024 27 1943
5815 -2.0155404006589293 -2.3407176370491865 21.160135947704905 147 64 48 1.5321650770524404 22 1874 25 2000 26 2027 23 1809 24 1865
6920 -0.49401778364206295 1.0164924943827176 15.294787199001169 184 120 121 0.66501298246411944 25 1322 27 1301 28 1294 31 1294 32 1356 33 1336 37 1315 38 1355 39 1384 36 1321 35 1277 40 1310 41 1357 42 1651 34 1293
5819 1.0743498342178972 0.7646702383786339 15.465998112724554 54 32 25 1.1838528222291518 24 1926 25 1917 26 2048 27 1877 28 1869
5821 -2.3212190906621206 2.9723143418375564 23.664945469596514 213 219 204 0.78310649914714148 25 2047 29 1996 26 2062 30 1988 27 1989 12 1869 13 1897 14 1919 15 1905 16 1909 17 1896 18 1971 19 2018 20 1949 21 1950 22 1923 23 1976 24 2030 28 1972 31 2011 32 2024 33 2017 34 1950
5822 -2.3015650619050105 2.9628919748297209 23.592802638994034 213 219 204 0.62667650121564544 25 2046 29 1997 30 1989 26 2063 24 2031 27 1990 28 1973 31 2012
5829 -20.686387206441644 0.45175313387253746 51.834659089119668 41 43 38 2.0132202546587816 23 2126 24 2201 25 2201 29 2181 26 2218 27 2152 28 2151 31 2137 30 2182
6487 -1.9750845540683633 -2.8815693569541563 21.713040517581579 194 119 100 0.65919477533664594 27 1439 31 1426 32 1491
5830 -5.00152307955869 3.4270554242158138 14.228869698733366 185 87 81 1.4727276614383324 24 2172 25 2175 26 2239 27 2119 28 2119
5843 -0.37150838719875562 1.0021206319521785 15.114522864265842 42 17 17 0.67036932821040818 25 1546 29 1321 26 1612 23 1712 30 1323 27 1539 28 1295 31 1295 32 1357
6567 -1.5155026940611653 -3.0919186225283402 21.640331533845565 197 105 90 0.20322359974636975 30 41 31 42 32 35
5846 -2.1831694521772254 -2.1088593043817467 21.431385298279597 126 67 59 0.92309635821751912 24 1208 26 1524 27 1454 22 1406 23 1147 21 1438 28 1468
7080 -2.0786823349024659 1.3599872682149325 18.038329144277608 48 50 39 0.25953714206790068 32 1370 33 1346 34 1301
6201 -5.5526318066076792 3.6925136697545979 15.068424780557741 154 86 83 0.31233076117035591 27 668 29 675 28 646 26 694 30 643
5851 0.5328396727380218 -2.726369566842902 22.160933505241736 205 157 138 0.67592522967083346 24 59 27 32 23 35 25 44 26 37
7074 0.28377711150194773 0.63268491003503069 15.12873507889924 191 103 99 0.11108702417992107 33 1296 35 1241 34 1257
5853 -2.1845084750414152 -2.025616870893546 21.858035413517115 120 70 60 0.52926410972088389 25 696 26 758 29 731 27 46 30 718 28 703
5854 -0.19325805055497539 -0.86856901760665972 17.202187653516035 250 242 230 0.15018873891743678 19 86 27 60 18 98 28 64
5861 0.59320875651938543 -0.083472964763915164 16.062471172019855 255 244 238 0.1412106747622395 29 191 30 183 27 155 28 172 31 162 34 138
6519 -1.8828751418715683 -4.2134633411345597 22.984801093044592 187 185 173 0.80862567530610696 29 1809 30 1805 31 1773 32 1849 33 1841 34 1772 35 1753
5862 -2.0492593113019293 -0.013374256336497451 18.151291449317156 197 169 160 0.21059960686035667 26 182 29 203 27 168 28 185
7032 0.838826881315477 0.3989890750396024 15.726005878949428 42 24 22 0.20593513653932255 33 844 35 792 36 812 34 820
5867 -0.10260647874290302 0.074705148701034063 15.99177192399311 170 83 84 0.37204938814605037 30 209 27 194 28 204 31 190 33 194
7026 -0.17757889356438594 0.26773848982605652 15.623175596041502 157 63 63 0.29146758342960155 33 818 35 763 34 787
5869 0.38690342644707842 0.15557994387678425 15.757027382689957 134 35 38 0.65050611261235691 26 218 29 242 27 215 30 810 28 782
5875 0.77316076844367887 0.37775215314253902 15.478751296719956 194 119 115 0.33438330317396098 26 278 29 860 27 281 30 1273 28 833 31 1228 32 1277 33 841 34 817 35 790 36 808
6471 -0.10066380216630368 -2.207809457782143 22.720730254283083 217 154 114 0.2384344736608992 29 1177 30 1195 31 1144
5878 -0.95552090978616666 0.47242082577250427 16.164083428841234 145 51 39 0.16850397673695539 29 317 27 295 30 289 28 282
5880 -0.2350226404335311 0.47958225413133099 15.731403484539605 82 30 27 0.44705071292743881 29 328 27 305 30 299 28 289 31 277 32 855 33 854 34 829 35 799 36 820
6984 2.1936465200978907 0.92588430597026561 16.78995545211054 248 252 255 0.21236966452874917 33 941 35 891 34 371 32 935 36 906 31 940 37 894 38 911 39 941 40 887
5883 2.0645755984132128 0.57328263439955773 15.780066210122973 254 223 206 0.35606547773692027 25 317 26 339 27 335
5886 0.51434371778210874 0.74643540091588612 15.097598978002271 98 40 36 0.29251020996904531 29 388 27 374 28 899
5888 0.73401624101252139 0.7983743355541788 15.223424782691906 163 78 73 0.51030436235698928 29 940 30 941 27 388 28 910 32 909
6845 1.1711519859033139 1.6984722206529381 15.727903070174147 186 157 104 0.16801132410876762 31 1349 32 1409 33 1383
5890 0.1858524079021199 0.85051128331895431 14.864164273210632 110 51 44 0.16766290880980539 25 952 26 982 27 408
6326 0.8217358648359927 1.5291559901638356 15.465795806627833 44 31 31 1.2254892233042671 29 1584 30 1587 28 1565 31 1552 32 1811
5895 1.645924191634123 0.9193188201431477 15.797130082633606 243 214 195 0.20100744582375291 25 384 26 439 27 422 28 394 29 422 30 405 31 380 32 390 33 433 34 381 35 380
6843 0.19403802297908071 1.0558311784892425 15.041860713883587 135 81 81 0.44306644788091543 31 980 32 979 33 1341 34 1297
5896 -2.2836939253321002 1.0938880513998501 17.924868256326118 206 203 191 0.12978705687125885 25 389 27 423 28 387 33 422
5898 0.24274967215555682 0.91444632406619752 15.084842053083692 94 33 32 0.14575964425265531 25 390 26 444 27 430 28 397
5903 0.67989103790865513 1.1663960519650782 15.752389220923771 111 77 81 0.10091259302603435 29 487 27 487 28 453
6797 0.8147284747142941 0.32023625856635746 15.608581195584232 171 83 73 0.5494484117348909 35 778 33 829 34 806
5906 -0.88562485171138805 1.2921538923981708 15.563846619337832 83 45 36 0.34574393844928286 25 470 29 513 27 508
6278 -0.53740218250815086 -0.050663036714056697 16.928020473030472 191 65 53 0.79994049404099299 27 1219 29 1222 30 1241 28 1209 26 1281
5911 1.2613731424536907 1.4312368816930729 15.976081961870612 222 205 184 0.47435060379799976 26 1068 29 544 30 525 27 537 28 503 31 490 32 1042 33 532 34 986 35 966 36 474
6795 -0.6000884041462089 -0.5901176186209719 17.272834924009075 245 250 239 0.56840586261247672 31 1173 32 1217 33 737 34 712 35 696 36 74
5912 0.44162077455830295 1.5027141508136417 15.833073616586843 27 26 22 0.47819581278250639 25 508 26 565 27 550 28 513 29 553
5920 0.61163436468999599 3.7651708539224944 18.000386826268809 91 96 73 0.50146061085117333 25 592 26 1124 29 1102 27 627 30 1119 28 1409
6749 0.350161511138191 -0.77022213989845056 17.961414464845372 253 251 248 0.19695331838984026 32 79 35 53 33 69 34 53
6604 0.37620451276813305 1.6208093042066898 15.452223905134019 57 38 32 0.41761058097202408 30 551 31 523 32 521 33 565 34 522
5922 -4.838356257198134 3.4495334649222 14.472288994328597 159 77 80 0.41051856723567759 30 635 27 657 31 616 32 619 33 651
5923 -4.4375734425184614 3.5716454433826335 14.606754121473424 211 130 118 1.1710515787967344 25 634 26 690 27 667 24 674 28 1107 29 1440 30 1140 31 1390
6230 1.7362897433585818 0.7266417755517145 15.683646028780215 253 253 243 0.14605691448003899 27 370 29 386 30 923 28 890 26 384 25 921
5927 -0.14066952680209296 -3.8275179175502436 22.911871305530543 156 135 112 0.94861024570270025 30 691 27 695 28 674 31 22 33 1150 32 1165 34 1095 35 640 36 643 37 9 38 11
6747 -5.117767937981732 -6.010545462402745 27.02216319985277 206 152 148 0.93154130498504484 36 1 38 2 33 1
5928 0.10720520041155851 -3.617309899736366 22.198471032320217 205 174 155 0.36002890992109654 25 672 27 697 26 726
5930 0.1823377023809947 -2.8573903347756997 22.359545374216253 205 134 114 0.64885044314730755 24 53 26 743 29 1169 27 707 25 39 28 1156
5935 -0.1409675002211245 -0.87218943252870096 17.266405952724948 206 53 74 0.13256281804660958 30 729 27 743 31 696 32 694
6829 0.50093757367361469 -2.1218466715628201 23.222693089838849 207 174 138 0.75850427870603654 31 1147 32 1193 35 1110 33 1169 34 1117
6620 0.79858163866348442 0.27295140897599096 15.710847778006331 190 82 77 0.32555541127995402 30 255 31 812 32 829 33 824 34 798
5938 -0.98814471874375875 -0.70265694521015631 17.39552280190826 211 189 142 0.96364698728223408 29 1196 27 757 30 1211
6310 0.026418199297541241 -2.5106635345261896 22.160551103956948 211 111 79 0.9145371649859777 27 1679 29 1468 30 1468 28 1462 26 1746 31 1434 32 1502
5943 -0.5046141738469716 -0.196173401332807 17.34024614577114 184 78 52 0.26267951203484857 25 771 27 803 28 759
6827 0.39038834818229173 -2.9717385283316728 22.486855917839055 218 145 114 0.19140228886339522 30 1180 31 1138 33 1162 34 1108
5944 -1.2862526771507785 0.1318048034921746 16.379776303037424 183 75 61 0.31263342531726751 23 808 26 862 27 828 24 222
5952 0.67903357797407671 0.71751764274369756 15.026964680072489 205 136 128 0.80331666577537297 29 1287 27 915 30 925 28 1268
5954 0.65769057897857675 0.78219573757434657 15.101330887084876 91 37 27 0.52363968473717648 26 399 29 937 27 929 28 905
6390 -1.3560373885120856 0.70986136151980417 16.25653783216595 121 39 31 1.1617369507185427 20 853 21 327 19 397 18 381 17 327 16 344 15 347 14 359 12 383 11 386 9 384 8 387 22 348 28 325 25 343 26 370 27 358
5959 -1.229109321715433 1.1450081184975509 16.360475474157088 103 50 42 1.0294616344668064 25 1325 26 1384 27 982
6907 3.44211507485586 2.4117833533714377 32.178353202660624 210 180 169 1.0033028633389989 32 2227 35 2152 33 2188 34 2117
5960 -0.6952137611675413 1.1104678486920811 15.652734772148543 193 119 114 0.19612482146818189 29 1325 30 997 27 984 28 1305 31 979 32 977
5962 2.0127065499636076 1.285935316254067 16.217798354311462 105 56 48 0.4096800631910042 26 1043 29 1021 27 1016 28 989
5967 0.73443764185484317 1.4735999959468533 15.320730995838966 113 65 55 0.33923807728597499 26 1082 29 1049 27 1052 28 1024
6183 0.10602491739178099 1.3100489860237403 15.190053774437045 118 83 81 0.16192696533119907 27 527 29 524 28 492
5974 0.50830890100348669 3.5990349503496168 17.172060300030772 21 26 22 0.83158130411457276 26 1123 29 1422 27 1098 30 1411 28 1408
5984 -1.6252011965003164 -3.2654201927985222 21.104989697830845 200 135 122 0.52690340074352293 26 1202 29 707 27 1163 28 678
6813 1.500795227994995 1.303571854683135 15.611284494990196 240 181 147 1.1145755051707593 32 1025 35 476 33 1021 31 1327 36 461 30 1029 37 448 34 975
5986 0.62336846089360476 -1.8439650869323663 22.912876376412079 196 124 94 0.40455593960462877 24 729 27 1185 28 1170
5987 -0.14558817551383588 -0.46882096329367223 17.341596119951543 240 190 171 0.17538767845087486 29 1505 27 1203 30 1501
6294 -1.1869502257160096 0.87656447242551616 15.774602906659174 186 102 79 0.34152478382500606 27 1289 29 1303 30 945 28 1284 31 922 32 919 33 921 34 898 35 876
5991 0.55882010434312512 0.13670300684398759 15.746358976901025 196 104 105 0.48072423847946982 25 1249 26 1300 27 1231
6811 -1.1960109507411303 1.2212537904288794 15.934113966944372 57 29 26 0.93823816268331228 31 1311 33 1000 34 961 35 935 36 416
5992 -0.85901193363731521 0.16290097870630244 15.829756701978303 158 60 51 1.1892059907586519 26 1305 29 1237 30 1255 27 1233 25 1514 28 1218 31 789 32 804
5994 0.12001086221792483 0.20947098719629384 16.101025953002868 62 29 25 0.1960480917256375 29 1243 30 1261 27 1242 28 1223
5999 0.48502574233264556 0.85658654498604292 15.275888391214551 42 29 21 0.203864563507827 25 1540 26 1605 27 1291
6002 -2.2547111119841623 1.3979536553597642 18.985575027800479 226 231 224 0.57297094657815961 24 1355 27 1312 23 1281 22 1236
6374 1.1744217042632912 7.3497710321296026 32.161664368612605 67 83 72 1.180891608674778 27 2064 29 2090 30 2083 28 2057 26 2137 25 2124 31 2039 32 2119 33 2091
6007 -0.21225250434648771 1.5845823301854214 15.563937884741348 83 54 46 0.86740626594978221 26 1428 29 1053 27 1348 28 1366
6891 -16.326280456158695 -1.3991804330614122 36.210705598080914 34 36 31 0.94828110308922087 31 1896 32 2072 35 1898 33 1977 30 2032 28 2016 29 2036 27 2083 34 1917
6008 1.0647369623870981 1.7766638655750382 15.49687568968786 73 40 38 0.5308295733966143 25 1368 26 1439 27 1358 24 1401 28 1375
6021 1.8449464507933544 -0.041106156670707723 16.527200151041249 212 175 168 0.53754667701246961 29 1519 27 1501 28 1517
6167 0.33161878447281351 0.92990566869354729 15.514302305007531 44 29 27 0.19924126719748658 29 428 30 966 28 398
6022 1.0828132770353593 0.1190603125588343 16.075814166037905 250 243 245 0.44998085739284832 26 1565 29 1526 30 1524 27 1506 28 1524 31 1483 32 1555 33 1546 35 1186 36 1224 34 1501
6680 0.77284194395470596 -0.66317610647699421 17.834547680644853 213 204 176 0.8124459058205139 37 1751 32 1765 33 1755
6027 0.13344239487596193 0.6215668895325841 15.041062820598567 182 92 94 0.42331725037760481 29 1544 30 1547 27 1525 28 1733
6029 1.019896627791826 0.93781659777615201 15.352986107310958 62 33 25 0.57951446653897187 25 1315 26 1372 27 1532 28 1739 29 1753 30 1749
6035 0.3925812054735538 3.1291691006440927 17.676903597818843 20 20 18 0.23876269967665956 29 1611 30 1604 27 1591 28 1587
6247 -0.11418701745983259 1.4402429998060022 15.627720380628322 97 59 54 0.38516384226335187 29 1043 30 1043 28 1010 31 1019 32 492
6038 -5.8325653896265406 3.2882156418938915 14.786222191433501 124 69 67 0.27901529768317346 25 1618 29 1425 30 1412 27 1607
6760 0.33560147461329781 0.16091282455210612 15.536137996679992 214 143 147 0.10208866421819711 35 182 33 225 34 202
6043 -0.60390514350388247 -4.3243928690448934 23.516441386275357 192 171 152 0.24281009057477704 26 1695 29 1639 27 1632 28 1624
6754 -0.35942491227438994 -0.43598757212469558 16.930566878169454 115 31 8 0.18426506326079126 32 110 36 89 33 93 35 83 34 84
6045 -1.8634858908729179 -3.021295257934157 21.426608495700318 203 110 92 0.95370122403015845 25 1661 26 1715 30 1647 27 1650 29 1652 28 1639
6046 -0.4256243216184073 -2.9715955727655419 21.443869805959114 188 82 68 0.64894664650662359 25 1663 26 1719 29 1454 27 1655 28 1641
6048 -2.6774962996459362 -2.8033024291628901 22.281370591121323 191 140 123 0.94090234531020811 25 1675 26 1731 27 1670 24 1686 23 1624 22 1743 28 1806
6068 0.08560292040652695 -2.0706267081547711 22.037204570957364 209 115 81 1.9977358480806535 23 1813 24 1871 25 1702 26 1756 27 1829 28 1675 29 1690 30 1481 31 1444 32 1514 33 1502 34 1116
6151 -1.1796266378314086 0.66536860623136607 15.87458349937177 183 85 65 0.13853933621509321 26 942 27 342 28 309
6070 -7.2737504650163203 -1.4938665046476114 27.827472745749169 73 102 82 1.5733511563565892 25 2010 29 1853 27 1837 28 1825 31 1681 30 1700 32 1756 33 1747
6071 1.1807757127940917 -0.49849638112746092 17.770047950162731 178 126 101 1.6252985211492215 29 1857 30 1845 27 1851 28 1837
6664 0.11468459794830713 0.41030887745933559 15.53057654595648 99 43 44 1.1726412533527559 30 1538 31 1495 32 1566 29 1735 33 1566
6658 -5.2156949649166817 3.4667560110901943 15.474483164844122 133 70 61 0.37719197240851726 30 1414 32 1432 33 1409
6077 -5.9177452409798379 3.5676598977357843 15.224827865320723 20 22 21 2.1513179962168349 25 1975 26 2003 27 1924 24 1984 28 1918
6078 -2.0430247843330571 -3.8260108974759994 22.38969852394688 215 201 190 0.72114345075446584 26 2017 29 1942 27 1937 30 1932 28 1929
6085 -8.5323005125353522 1.6264908393419171 27.324438339553481 47 55 42 0.561249566641564 25 2095 26 2111 29 2052 30 1972 27 2038 24 2087 23 2021 22 1969 21 2004 20 1998 19 2063 18 1959 28 2025
6231 0.079493968083660868 0.75896757772957602 15.170676942578513 145 81 81 0.34333586770216051 27 1278 29 928 28 895 26 1360 30 926 31 1265 32 1328
6086 -16.750790400477804 5.1562663254426244 38.896159770722186 44 49 43 1.8686932474399296 25 2106 26 2118 29 2062 27 2046 30 2058 28 2037 31 2013 32 2097
6089 -12.69295377082627 -8.9471585364589199 36.171541539947775 26 28 25 0.85122930181734457 23 2054 24 2118 25 2128 26 2138 27 2066 28 2061 32 2122 35 2062 36 2117
6092 -5.8597617483297872 3.4586159863260955 15.285925601125136 23 23 23 1.6531117120035155 25 2174 26 2187 27 2118 28 2114 31 2098
6738 0.28068592013894927 2.5824677771983646 17.241337278491429 19 21 19 0.26690848664136169 29 1905 30 1899 26 1973 27 1904 28 1892 31 1851 32 1931 35 1851 36 1898 37 1916 38 1967 39 2003 40 1944 33 1929 34 1872
6093 -13.8980148238947 -7.9937660512267277 36.10030070468639 57 106 106 2.1144790123393653 25 2226 26 2241 37 2203 38 2257 39 2230 27 2190 40 2148
6099 -8.0241352866807336 -6.9235462091105431 28.53157454573488 179 133 135 1.5266617578441253 29 2267 30 2264 27 2260 28 2245
6311 -0.63748319512810647 -1.9279565162241978 21.247633639296684 134 64 57 0.6629027854499987 29 1478 30 1486 28 1472 31 1447 32 1517 33 1506
6102 -0.067190662921369673 1.4997012068708999 18.372066038584059 29 23 23 0.58204068155372268 27 2308 31 2290 32 2383
6824 -4.522983407011508 3.5276396393109946 14.180588718484923 161 74 83 0.60063081671877461 35 1057 36 1095 33 1126 37 1080 34 1068
6457 -0.69794944428649186 1.0248093214911405 15.670047106752797 85 38 37 0.41451114822829105 29 982 30 983 31 962 32 959 33 1334
6107 0.28537203318596771 3.3740984109026799 17.837063636337813 33 33 35 1.3734551180006591 15 1014 29 1081 26 635 30 1104 27 611 35 558 37 528 38 548 39 568 40 549 41 555 42 593 28 1060 33 609
6818 0.044252130580732935 2.3833795569770602 17.440358281934508 40 42 39 0.58333240885159321 35 531 33 1064 34 550
6109 1.196089450898618 -0.76117331528252974 17.285824347754506 193 62 77 0.31653892502702552 25 730 23 73 24 92 27 751 29 753 30 736 26 791 28 72
6110 0.38256422163084197 -0.042371138865023937 15.993903590097926 69 33 28 1.2464697356660224 29 1968 30 1961 26 2040 27 1966 37 1882 38 1793 39 1840 40 1781 41 1588 42 1831 43 1568 28 1949 31 1913 32 1991
6117 -4.3236263512189916 -6.0580780922895094 27.999666283892456 195 177 173 0.28741040316907163 25 1 28 3 24 1
6263 0.20883876802358092 4.4993710933478708 18.520581614743367 143 90 69 0.34845293741176692 25 1137 26 1175 28 1124 24 1157
6118 -1.6061258642871457 -3.053082427726951 21.918953692956595 211 190 173 0.20586652040916587 29 39 30 43 28 32
6770 0.2574876585952654 1.0936294132107212 15.299148699243021 139 87 91 0.42199509644460581 32 424 35 420 33 465 31 426 30 460 34 424
6125 -0.22138385213276493 -0.53214211623459595 17.359615661479886 193 77 77 0.1738668203185848 26 105 28 94 31 94
6131 -0.93556269788396873 -0.32650139360017044 16.718642917789776 188 95 75 0.69508901590997529 30 130 28 124 31 738 32 741 33 759
6215 0.88394460077314718 0.15374757924780033 15.901359601462763 209 127 122 0.44344806638151618 26 220 27 835 29 827 28 783 30 228
6140 -2.276389295099968 0.25826298310855017 18.371611544056027 206 134 120 0.42205317658953562 27 229 29 249 28 230 26 234 25 244
6722 -0.82743060647744993 -0.13100411360588318 15.648546717847251 245 193 148 0.41009445705924502 25 150 26 160 27 143 24 168 28 159 29 172 30 162 31 148 32 153 35 115 36 117 37 109 38 138 33 146 34 736
6141 1.4236072943701219 0.28299536500647371 16.100177880506518 254 248 240 0.16835462074911059 27 849 29 285 28 242 26 886 30 260
6142 -0.93814505428032635 0.30654454181569035 15.509550324888936 164 53 42 0.18931267641813199 27 247 29 279 28 245
6144 -0.18649505895854429 0.32766243666630746 15.044668931422802 197 94 95 0.18237748152510358 27 259 29 294 28 255
7088 -5.146514680574847 3.8015109303457781 15.785228870290887 24 22 20 1.5733758706877894 33 1427 35 1362 34 1387 36 1417
6145 1.3743583750383517 0.52192224800076703 16.261406135308128 162 59 59 0.47419684640069754 27 318 29 335 28 293 26 318 30 313 31 290 32 313 33 319 34 282
6147 1.3033066614768078 0.50357153864880932 15.29373328707412 201 98 86 0.40700765873590472 27 319 29 877 28 295 30 879
6148 -0.20101441234676168 0.60480339132929861 15.984421030093484 137 80 78 1.1658478769280445 27 329 29 896 28 301 30 893 31 867 32 878 33 879 34 297
7092 -4.5234328139005822 -5.3711525237334934 27.178625893573862 195 169 162 0.88712937110748824 28 1791 29 1446 30 1439 34 1409
6149 0.50254060426462022 0.56208433124532009 15.525943842714804 83 34 37 0.082562358612435632 26 335 27 330 29 892 28 302 30 889
6150 2.3196780150650387 0.57470749721076186 16.355744215941698 157 84 78 0.12343443535063299 27 331 29 897 28 303
7096 -1.5017156384528043 -1.9110098135375 21.074279799876134 126 69 66 0.73366469147915159 33 1504 35 1430 34 1452 32 1516 36 1486 37 1489 38 1540 39 1572
6153 0.51110166732103246 0.66916361371350397 15.675697143858416 85 40 37 0.33958968182354915 29 371 30 343 28 322
6154 2.0056454765346783 0.69087002712373868 15.795485345150498 171 55 45 0.50096499037297559 25 347 27 363 29 381 28 329 26 378 30 354 31 329
6155 0.97374314549454299 0.70192240151053265 14.840377346468539 168 79 77 0.31186093023717265 27 369 29 387 28 335
6156 -0.7215304698606021 0.75513066679435181 15.247267082810508 109 49 43 1.3249615294864936 30 359 28 341 31 893
7100 1.2854834188682174 0.45901295260068686 15.845208896763042 77 33 20 0.74397077380143584 33 1271 35 1487 34 1511 36 1728
6157 -0.35618448371357403 0.78101446615638148 15.838202999895763 96 37 29 0.20989655692701104 27 373 29 925 28 342
6158 1.5976087716667664 0.77024510354125342 16.043989451930994 187 101 91 0.31097295494677174 29 390 30 364 28 344 31 343
6159 1.5971717121651556 0.77010544968617844 16.05788494879992 187 101 91 0.29220013395118744 29 391 30 365 28 345
7040 1.1033854372842105 0.59492077742913652 15.671870709799299 244 243 226 0.11159757741276104 33 881 35 835 34 862
6161 0.10619423189396898 0.82247125061132442 15.256329183707701 80 39 38 0.055310523911560515 26 407 27 391 28 362
6163 -0.066462839750731376 0.8349180108732206 15.397371793506009 157 87 80 0.23393896686303561 30 379 28 364 31 921 35 333 36 316 37 309 32 916 33 922 34 343
6164 1.0039153620594445 0.83939987957916784 15.477334194427247 232 193 191 0.47618403517200592 26 416 27 397 29 946 30 949 28 369 31 924 32 922 33 931
6165 1.2595911141047262 0.83910373066434951 15.35525444158144 147 43 40 0.57005571683287382 27 942 29 407 30 951 28 373 31 927 32 373 33 411
6166 0.25183113037874955 0.87660387233626968 15.140196309271943 146 78 81 0.63775113483093837 27 944 29 415 30 396 28 378 31 369 32 380 33 418 34 367 35 360
7048 1.1080346363864855 1.198879192109084 15.157947477242564 107 46 36 0.39476695516004789 32 1380 33 1012 34 970
6169 1.5001379536543993 1.0554735781989812 16.245939210181589 178 77 65 1.1626847622376848 27 455 30 432 28 416 31 405 32 967 33 966 34 935 35 914 36 937 37 925 38 371 39 402
6172 0.69152883011562116 1.041241356742201 15.511554526129915 134 97 96 0.40784862893989926 29 462 30 445 28 424 31 412
7052 -5.760828773180636 3.0387754776025431 14.89920975408724 21 21 17 0.86837524866677285 32 575 43 518 34 1029
6173 1.9356682726668442 1.0221440395992296 15.458747575454547 128 43 38 0.42274805911638624 26 478 27 462 29 991 30 992 28 425
6174 1.9787908764269031 1.0404175872189887 15.732715189292808 226 163 148 0.07075191281056116 29 466 30 449 28 426
6176 -0.11088170614014307 1.0789431387294379 15.433582745094103 90 39 35 0.4037350596554441 26 484 27 467 30 453 28 434
6179 2.0424019464520708 1.1191920081335487 15.804581397034454 244 154 137 0.10606360539179853 29 482 30 466 28 445
6996 1.8806690674012132 1.4576460439571619 16.099924074937775 178 128 111 0.57371879748508958 35 494 36 491 34 495
6181 0.5916260697893887 1.195181255390644 15.129428984782511 96 41 36 0.18816960363830415 29 501 30 482 28 468
6182 1.6408451756179934 1.2621006761081195 15.489169594798042 189 77 63 0.87257949879533026 27 515 29 1025 28 484 30 1024 31 1003 32 1018
7000 0.1400300278359764 1.8275263860628166 16.142148331514395 120 107 101 0.20626193898132519 33 574 35 519 34 538 32 530
6185 1.5871755027417831 1.414929259734647 15.708857574012198 148 50 40 0.12659392922748278 26 554 27 543 28 506
6186 1.9118047638822693 1.4611830220096846 16.264955915680162 73 57 55 0.34694817898796732 29 547 30 529 28 507
7004 -5.4858349585296047 3.2895420711978356 15.486100968846836 23 21 18 0.91745573221885579 19 1092 29 629 34 583
6189 1.6870166808911331 1.5397858266796756 15.694460149500797 215 189 174 0.10571021740525081 26 577 27 558 29 562 28 524 25 518 30 545
6190 1.7748985809962523 1.6032655578982775 16.355178429411254 80 47 41 0.14299348594453376 26 579 29 1052 28 526
6191 0.93217009300322951 1.5542127938066286 15.220230898177709 89 54 51 0.22933958609720198 27 561 29 565 28 530 26 582 25 525
7072 0.25850966526820507 0.57254115098833525 15.405855335391037 67 34 29 0.65276794091435153 35 1234 36 1279 34 1250
6193 -0.63432641599094897 3.2495575689700278 18.092727966368891 151 147 118 0.43100797053555173 29 614 30 577 28 582 31 560
7076 -0.8189208431506968 0.79954159510876688 15.349609870103238 95 44 42 0.65626089462193105 33 1586 35 866 34 1274 32 1578 36 303
6197 -4.6114447246854811 3.4446375369104998 15.347084876931865 172 43 49 0.1471767977844928 29 650 30 611 28 616
6198 -5.0120087635173025 3.5921218625580082 15.73855169254116 137 39 33 0.47180238235243771 29 654 30 615 28 622 31 601
6203 -4.5067733970112061 3.8392129461215001 15.461546576944849 164 81 76 0.45595461429516565 29 684 30 655 28 653 31 638 33 665 34 632
6204 -4.31283334902718 3.6183076514945802 14.437315316089462 193 103 98 0.6566913804828356 26 706 29 1139 30 658 28 655 25 649 27 677
7084 0.14296170779850759 1.7447487220044251 15.7325260612375 76 49 46 0.29805171954834453 33 1385 35 1324 34 1350
6205 -0.48515978930472559 -4.0030158685157016 22.480579255295979 199 137 120 0.17490868785263033 26 721 27 693 28 672
6206 -1.2310096486766069 -3.0171787362428044 21.758718870014039 167 73 63 0.76628988304615198 27 703 29 717 30 1176 28 687 26 738 31 673 32 669
6208 0.52576167104060512 -0.61012980584551912 17.8332190700444 235 222 219 0.845951649014685 27 88 29 769 30 748 28 735 26 95 31 723 32 720 33 739 34 715
6209 -0.90208288359014766 -0.50300242296496689 16.55539272584593 176 45 53 0.15319670261833374 26 102 27 774 28 737 25 92
6211 1.8262977217663623 -0.35975213848768262 16.609701806763802 196 76 80 0.56113498377290993 29 781 30 770 28 745
6212 -1.7761737479805666 -0.14825493629486941 17.683883987502455 170 93 83 0.39496334476153244 29 796 30 781 28 761 31 755 32 767
6213 1.1359160724468029 -0.11019640940905048 16.249697289197389 185 91 87 0.34451106219336131 29 802 30 1237 28 765
6214 0.73004785434819575 0.0092487241247277262 15.906155174573556 250 250 254 0.23955677902443182 27 1223 29 812 30 795 28 770 26 1284 25 1236 24 1262 31 175 32 188 33 182 34 159 35 145
7160 0.047808900603714996 0.13484344284296473 15.732188948267749 222 152 150 0.33110784080861427 31 209 32 216 33 215 34 190 35 174 36 180 37 156 38 198 39 189 40 167
6217 1.0847404790049704 0.30636324350141653 15.633309126786548 214 139 136 0.93780355683564154 30 842 28 817 31 822 32 833
6218 1.0288384080930393 0.37067586804100355 15.284806252712876 233 125 109 0.56104685162428913 26 910 27 862 28 829
6219 1.4590383257596773 0.42592194476853679 16.210649493143666 185 67 61 0.21137674817378416 27 873 29 865 28 838 26 913
6220 0.2768411399465085 0.44711710149979239 14.875052463599179 178 108 96 0.35304351427932656 27 877 29 871 30 872 28 848 26 919 25 867 24 878
7164 0.50003824107860362 1.3688358017548534 15.525452659712371 105 74 71 0.49072058929342149 29 1037 30 517 31 486 32 488 33 527 34 483 37 455 38 437 39 470 36 466 35 483 40 453 41 1015 42 471
6221 2.1784343292583079 0.50117221387551347 16.098914413388041 237 198 182 0.1970827394333432 25 306 28 854 24 319 26 320 27 317
6222 0.82131814719923102 0.54041697553184964 15.594639623168204 196 124 112 0.572926015828364 29 881 30 884 28 859 31 858 33 324 32 875
6223 -0.22018296953685507 0.56345636016577794 15.790469714452273 32 18 17 0.52757238017095354 27 327 29 884 28 860 26 328
7104 0.60120290909754714 0.85313927250133759 15.222019528616485 49 23 18 0.72902470163072763 37 1574 34 1538 38 1624
6225 -1.2921836884823588 0.62936089261303818 16.066507135134756 140 63 55 0.63559384314437517 26 935 29 899 28 869
6227 2.3579523672926088 0.63849362735851467 16.517168520982114 167 65 50 1.4120714118595421 29 1277 35 1499 28 876 34 1528
6949 -15.964781402658428 -5.8606988599499825 40.66141533554184 41 43 40 1.1573003316978285 30 2299 34 2267
6228 2.1015423954832437 0.63518111800846466 16.146137120071852 184 76 63 0.54325258326068082 27 343 29 909 28 877 30 905 31 882
6229 1.6846054403391197 0.72658176120376949 16.031876217522139 198 89 76 0.33110941689296303 27 913 29 383 28 888
7112 -1.1210299141057227 -2.8606002468978642 20.939180915546793 175 68 58 1.2840722871849952 32 1693 35 1606 34 1630
6233 0.66833114387220238 0.78783424855207573 14.956374693562738 70 33 25 0.64914840738195301 30 1303 28 906 31 1272
6957 -0.11922052414142106 -0.44297158601280312 17.59092724120644 198 89 61 0.13220571936380288 32 114 33 99 36 722 34 85
6236 -0.32538516781746091 0.87365947102484043 15.024210981526835 166 81 79 0.63814931483074444 27 948 29 950 30 957 28 922 26 988 31 937
6238 1.8408555215554467 0.89853200332237759 15.411506752886654 220 112 89 0.35773418936081269 29 430 30 409 28 933 31 384
6239 -0.97984081837575843 0.99775837631164277 15.554142183473131 99 35 23 0.76926313066101115 29 970 30 976 28 948 31 955 32 949
7056 -0.30043105175948259 -4.2464973645236244 23.833949567569523 146 140 117 1.0624848778621778 32 1161 35 1397 34 1089 33 682
6241 0.93324529843070292 1.116652596859554 15.63298401858761 24 11 3 0.23854023295559076 27 995 29 1331 28 967
6242 -0.48634201906807067 1.1964196580727795 15.727224268698468 51 27 23 0.12214637050534467 27 1004 29 1010 28 972
6244 -0.07700720078354005 1.3438877088273273 15.671004976857597 101 63 62 0.30439628045936945 29 1031 30 1032 28 995 31 476
7060 -0.39099412000692912 -0.81469953893050584 16.766769076208124 204 66 74 0.25327178611836243 33 1188 36 1160 34 1131
6245 0.28306372594383888 1.2977620985692446 15.160217450599797 38 28 24 0.54903961013741265 30 505 28 997 31 477
6246 0.85018554370067678 1.4312108071879535 15.747806296745514 31 15 10 0.1773426586887337 27 1039 29 1041 28 1008
7064 1.7022747828942375 -0.53769087100226287 16.747593583579235 197 65 73 0.11533850972709021 35 1137 36 1179 34 1150
6249 0.046020488195894597 1.586740914844974 15.368296870478758 44 27 24 0.35481243168909593 27 1056 29 1388 28 1029 30 1590 31 1744
6250 0.60700198046687626 1.6130976597002351 15.105498364827129 30 22 19 0.29125151274875999 29 1058 30 1072 28 1032
6251 1.3569336040188038 1.7087455878644717 15.666653386067006 82 57 43 0.3677745751160244 27 570 29 1063 28 1036 26 594 30 1077 25 536
6253 0.20316142902977116 3.6613181687674072 17.801519231043631 105 97 71 0.60945786754135811 26 1118 27 1093 28 1077
6254 0.0024368092139835 3.692554654332429 17.731112073926194 54 60 46 0.91533549989186902 24 639 28 1078 33 630
6255 -4.5385674720044751 3.3226516976529159 15.180329870151992 94 66 65 0.58084022727666906 29 1101 30 1115 28 1081 31 1081 32 1107 33 1407
6256 -5.6818817772901573 3.4750509663080105 14.974392030379658 25 23 21 0.76371250269003388 30 1125 28 1091 31 1088
7136 -5.2292206609756073 -6.0430546091547299 30.575819906992223 0 0 0 1.6978782762769309 33 1840 35 1877 36 1935 37 1831
6257 -4.7236383604563787 3.5819432533099307 15.514300680737934 47 42 38 0.91762101154785869 27 1113 29 1432 28 1094 26 1137 30 1419 25 1116
6259 -4.7760211754880357 3.5799769863058004 14.791777418948355 160 76 67 0.39691789258013782 27 1123 29 1117 28 1104 26 686 30 1135 31 1097 32 1124
6260 -4.7190975999828364 3.4978477102074708 14.397607938150825 144 64 60 0.84063491274358237 29 1118 30 1425 28 1106 31 1099 32 1445 33 1431 35 1365 36 1087
7140 -8.1609260594095794 0.60603446858777621 27.219821099956931 33 39 32 0.70231829548390545 19 2001 34 1928 18 1949
6261 -5.4426499938371702 3.5129772997596369 14.221085438402056 133 66 76 1.0811155930060163 24 1158 29 676 28 1110 30 647 31 626
6262 -4.7146210562851429 3.523934332351335 14.186827628254777 196 134 139 0.51774377413579709 29 1130 30 1146 28 1117 31 1107 32 1135 33 1436
7144 -17.289524272114047 -2.1354491926056207 37.552006394197981 139 117 60 1.5529059342631397 30 2177 31 2130 32 2206 35 2016 34 2044 28 2145 29 2173 36 2072
6265 -3.6138102777434993 3.6981219591244781 14.637681174434359 184 63 51 0.78903444031634773 26 1180 27 1147 28 1131 33 1452 34 1408
6266 -2.0764183108393541 -3.1706403142380992 21.74134466295169 206 114 101 0.23514978637231845 29 1163 30 705 28 1147 31 669 36 651 35 646 32 664 33 698 34 659
6267 -0.93956584581949043 -3.0576945958840236 21.796852829324401 190 100 88 1.8188104460132211 29 1165 30 1452 28 1149 31 1420 32 1485 33 1471 34 1627 35 1603 36 1643 37 1685 38 1726
6268 0.30792694361702505 -2.2274816126709593 22.593969963690274 213 165 135 0.38281025028540716 27 722 29 1175 28 1162
7148 -12.247170110369373 5.2355953068606125 29.2302432082795 21 21 19 1.1708786493370833 33 2199 35 2050 36 2104 34 2130 32 2240
6269 0.30925918666343344 -2.2271543800484044 22.576244643840248 213 165 135 0.40348541693264317 27 721 29 1174 28 1163 26 756
6929 0.74224007258352021 0.53408710757731237 15.004277839383812 216 133 127 0.72165475901555154 20 301 21 299 19 372 27 888 26 930 25 889 28 861 29 890 30 886 31 863 32 876 33 875 35 823 36 1271 37 1267 38 1303 39 1330 40 1258 34 853
6272 -19.762802485158218 -2.2445777491007224 50.426793176682452 216 138 116 0.76167957730947844 22 1110 24 1222 29 1495 28 1177
6273 -0.11412609213040574 -0.70477148036090165 17.705783338598945 196 41 40 0.25608515575627572 26 1245 27 1192 28 1178 25 738
6274 1.7351330784572319 -0.45542968163771258 16.917226621398175 236 144 114 0.54636047391066789 29 1204 30 760 28 1187
6275 -0.86381856656242617 -0.29971869211715713 16.698053500815192 188 168 144 0.31217098556006662 29 1215 30 1228 28 1199
6933 1.1699601283900305 0.3159563878009391 16.079162768537202 252 242 237 0.3078372245921 25 265 29 849 27 257 30 846 28 814 31 824 32 1270 33 1259 35 1204 36 798 37 1237 34 1213
6276 0.89285007952404216 -0.31021749396373943 16.596959583662834 226 106 79 0.69162601812394986 26 1269 27 1208 29 1511 28 1202 30 1506
6277 0.40556251819183015 -0.084808163785809756 16.425238521164577 67 35 34 1.3186905855428017 27 1216 29 190 28 1208 30 181
6279 1.0259597920209995 0.052241565096784799 16.013061237160965 152 49 44 0.51205289792062003 27 1227 29 817 30 1252 28 1213
6937 -0.49477649564145387 -3.0696728370834307 22.057671601786769 191 85 69 0.48377782110469109 30 1454 31 1421 32 1486 33 1689 35 1604 36 1645 37 1686 38 1900 39 1941 40 1883 41 1915 34 1628
6280 1.8399708185698174 0.14627678738868313 16.268888179509183 67 38 26 0.50933722857317865 27 1508 29 1239 28 1219 26 1570
6281 0.11774456373664441 0.20905349828374944 16.127832293372688 57 27 25 0.25136968513537611 26 1307 27 1241 28 1224 25 1253
6282 1.0557564231806718 0.22086735278950673 16.137664036481254 192 67 65 0.46939294855515162 29 1244 30 1531 28 1225
6941 -2.8857102421642629 5.1640706234077784 23.933969369511246 46 51 41 1.0569311292339738 12 2029 27 2060 33 2086 24 2047 25 2060 30 2080 26 2082 29 2087 31 1957 32 2050 34 1968 35 1941 36 1992 37 2020
6284 0.53805682332006532 0.37703693765120883 15.299559147189656 71 36 32 1.8533168855177706 27 1251 29 854 28 1236 26 1328 25 1521
6287 -0.31549287592775072 0.57044279949493526 15.556141243246634 107 49 41 0.25977283703305559 27 1520 29 887 28 1250
7009 -0.91244904190394738 -4.1818320376158828 22.924425218092239 187 187 178 0.40599474882827208 33 679 35 634 34 644
6288 0.75125487837526173 0.60182089909881364 15.568105475036946 137 52 45 1.4082493191934795 27 895 29 1274 30 1287 28 1253 26 353
6289 1.3340590312598715 0.58505674020007858 15.119151904829561 175 62 51 0.90357597762811837 27 1269 29 1275 28 1255
6290 -0.55516206163017001 0.7477720039378124 15.652346098226912 103 56 55 0.2509335756949283 26 1356 27 1276 28 1265
6291 1.0231708900811598 0.78014428184720808 15.620430707332437 50 23 20 0.96147751431534112 30 1557 28 1273 31 1512 32 1330 33 1312
7013 0.12016778466340655 -2.3839685534987902 23.04925358742026 203 102 74 0.4834897637706097 33 715 35 662 34 677
6292 -0.79097607029396244 0.80317448010906956 15.305452130837281 108 38 31 0.2235170114795568 29 1297 30 935 28 1277 31 905
6295 1.6855621047651903 1.1293319767569705 15.998628731638904 231 233 223 0.077880359559115805 26 1391 27 1310 28 1308
7017 0.93868870419385697 -0.52602919711421037 17.579075590527975 202 101 69 0.20167559133479884 32 731 33 745 35 702 34 718
6296 0.93576508363043598 1.2233857235189667 15.210722211898441 25 23 20 1.3050623398912404 26 1624 27 1325 29 1346 28 1323 25 1563 30 1350 31 1324 32 1381
6297 -0.19369366720356326 1.4075246501013963 15.994187386165269 45 32 25 0.3264173898671246 27 1031 29 1358 30 1355 28 1334 31 1541 32 1608
6298 -0.19572408968053182 1.4087227292646416 16.008239528235041 45 32 25 0.3255087367017388 29 1359 30 1356 28 1335 31 1540 32 1607 33 1614
7021 -0.94835414403357132 0.084295224360316626 15.880078553366067 192 77 53 0.85290113749154717 33 1231 35 156 34 760
6300 -0.6618085585493777 1.6021575560044068 16.833140720364206 42 33 24 0.26625012574862633 27 1049 29 1577 28 1347
6303 2.0321997904675499 1.5416144112822801 16.500053294096805 66 43 46 0.66032823166708865 27 1341 29 1376 28 1354 30 1586 31 1551
6961 -1.1578941036109627 -0.16571381771634197 16.327570111507484 189 99 81 0.29399426743706436 33 137 35 109 34 112 32 150
6304 1.2912118267982118 1.5785640324097587 16.006476730238443 121 48 35 0.98534526302213055 27 1346 29 1387 28 1363 30 1373 31 1341
7120 0.54141795937541359 1.1413508137524877 15.740830417791962 29 22 19 1.9290069205617886 33 1598 35 1831 36 1885 34 1732
6305 1.0334080437090405 1.567270774055862 15.297504861494359 55 37 37 0.65977983275600971 29 1390 30 1592 28 1369 31 1558
6307 0.51700669628972307 2.6134456246307933 17.31010462394881 36 36 36 0.36353691097608698 29 1402 30 1390 28 1381 31 1361
6965 0.61808398940518994 0.13117052214350969 16.162839578428887 175 103 99 0.32753163375374517 32 217 33 216 34 191
6308 -0.07728834534586343 3.353809297726464 17.282981504930582 113 103 67 1.7809682470237849 27 1082 29 1412 28 1394 30 1106
6309 -1.4023162108227882 -2.5486784543817826 22.052472151572296 88 49 47 1.2626121165587603 30 1466 28 1461 32 1718 33 1714
7128 -1.9308267678833611 -1.9011264561986847 22.516390045783787 81 53 42 0.64992348826470892 33 1874 35 1649 34 1804
6313 -1.3345540420668269 -0.60372026631252396 17.893232505458602 208 126 103 0.62323525493760934 27 1482 29 1498 30 1215 28 1501 31 1172
6314 -0.10760409066764419 -0.5324179166180022 17.751038806497306 199 63 41 0.27473731544477636 27 1490 29 1502 28 1505 26 1544 30 1498
6973 0.03732555261052501 0.3879862102512337 15.361009202210957 130 46 36 0.21420213181088088 33 289 35 240 34 247
6316 -0.98754724277119688 0.022647132106850442 16.189489046785205 185 53 40 0.9155519237598263 27 1503 29 1521 28 1518
6319 1.1941891918532024 0.62119778403111625 15.627313979932111 75 39 26 1.5380735795277583 26 1807 27 1524 29 1546 28 1538 25 1769 30 1548 24 1765 31 1506 32 1574 33 1579
6320 -1.0367349633939347 0.98434606981754791 15.44226239544493 159 82 61 0.15085805331372928 26 1608 27 1533 28 1546 25 1543
6321 0.19755261423895634 0.93776083492763551 14.835364313980005 184 92 79 0.12181407908240871 27 1536 30 1564 28 1547
6322 0.43035162510420594 1.0003991322204429 15.41329426481899 20 14 14 0.31602817447279236 26 1610 27 1538 28 1549
6323 1.7798442108823396 1.3661079512656156 16.354820428392234 95 52 46 0.5594694963065644 26 1629 27 1551 29 1573 28 1554
6917 0.92900349156560846 0.73355123884794782 14.968691022029997 214 182 174 0.27160472876173125 25 1301 29 1294 26 1358 24 1324 30 1298 27 1277 28 1271 31 1266 32 1326 33 1311 35 1259 36 1301 37 1296 34 1272
6324 1.5853875337343073 1.30300227968286 15.315950827648468 165 55 38 1.1924443382306629 26 1633 27 1552 28 1556
6325 -0.30971042145108824 1.5310552133724635 15.751325026578417 39 34 31 0.11904699302339243 27 1560 29 1581 28 1563
6327 1.062755937330921 1.5750148668468471 15.909058342180117 107 61 54 0.4625793655083511 26 1642 27 1564 29 1583 28 1566
6921 0.2039457295052409 1.0072351726882072 14.883227348754179 106 49 43 0.37202102522886615 30 444 28 423 33 453 35 401 36 379 37 369 38 363 40 374 41 378 34 405
6328 0.6062913974791031 1.8746625397234191 16.265089427184023 21 17 16 0.41569440548730402 27 1357 29 1595 28 1572 26 1094
6329 0.016764034332775887 2.6072965775370407 17.629292581447185 20 20 18 0.29589740597725556 29 1603 30 1387 28 1582 31 1359 32 1421 33 1069 35 535 34 1021
6330 -5.446128021919904 3.4596199863591086 15.077800748905961 94 48 44 0.43431527714009627 26 1678 27 1612 29 1625 28 1601
6925 -4.5398652059468798 3.6115339408680533 15.382376871917302 235 156 127 0.47689345280803652 25 614 30 1130 29 668 21 610 20 581 19 651 18 628 22 1035 23 1088 24 664 32 614 33 648 35 1042 36 1083 37 1063 38 1098 39 1125 40 1406 41 1691 42 1722 34 610
6332 -4.9383445613761969 3.4482097440906312 14.567734112706992 46 43 41 1.2772660409117136 25 1851 30 1423 28 1608 26 1869 29 1437 31 1384 32 1116 33 1108 34 609
6334 -5.5717005405639117 3.7684870285868048 15.098125548371977 153 82 77 0.40842776189447244 27 1402 29 1129 28 1614
6335 -4.5591449102547861 3.5158899528742649 13.991074648380096 160 71 78 1.3963437565733638 30 1433 28 1619 29 1137
6993 -0.46678336017974975 1.2524517802515736 15.063146777561101 122 67 63 0.50553585417643543 33 506 35 456 34 457 32 463 36 443
6336 -0.19477324688894398 -3.8146731602457589 22.923670195854243 161 128 107 0.85093085567924975 26 1704 29 1642 30 1639 28 1629 31 1619
6341 -2.5999298028316411 -2.0918490522261686 22.007534516434834 186 137 114 0.29393261307451568 26 1755 27 1694 28 1674
6343 1.9046904850417119 0.0332282911979297 16.668486859276374 48 47 42 0.18830455181387906 29 1524 30 1520 28 1711
7001 0.49813938358442278 2.6042551583939488 17.427297167953068 23 22 18 0.45656426888289631 33 588 35 537 34 558
6344 0.12444826102822269 0.62250190008610495 15.102093782222589 182 92 91 0.26336576015111829 29 1545 30 1546 28 1734
6345 2.1007936523091639 1.1913246188032778 16.073995289916368 108 64 65 0.27247811745609934 29 1762 30 1754 28 1747
6351 -2.7768077454594238 -3.8817715479571535 24.808635927260447 199 163 141 0.76059205171404076 27 1818 29 1820 30 1814 28 1803
7073 1.4785680894492654 0.5904996379579589 15.236862298543679 214 182 178 0.10381710045520579 33 1290 35 1239 34 1254 36 1282
